# .PCD v0.7 - Point Cloud Data file format
VERSION 0.7
FIELDS x y z intensity
SIZE 4 4 4 4
TYPE F F F F
COUNT 1 1 1 1
WIDTH 339
HEIGHT 1
VIEWPOINT 0 0 0 1 0 0 0
POINTS 339
DATA ascii
-16.328314 128.9525 54.436745 141831.09
-16.086166 129.01965 55.010834 184101.89
-16.169231 128.99783 54.852123 227811.05
-16.146725 129.00412 54.90715 227629.31
-16.22205 128.98453 54.769222 228638.42
-16.186331 128.99432 54.850819 281603.41
-16.049629 129.0312 55.142223 286107.75
-16.07391 129.02518 55.106873 247475.92
-15.939035 129.0618 55.402214 250203.84
-15.763912 129.10872 55.76532 244953.53
-15.991248 129.05699 55.584206 193286.98
-16.042671 129.04344 55.484436 194008.56
-15.696812 129.138 56.261597 140141.2
-15.773186 129.11893 56.147198 228021.19
-16.425495 128.94807 54.918373 160640.33
-16.730005 128.86859 54.352982 244321.78
-16.706327 128.87527 54.412949 250192.92
-16.649023 128.89136 54.554703 346109.75
-16.515066 128.92879 54.881317 263539.59
-16.493683 128.93489 54.937424 266841.91
-16.59828 128.90747 54.739529 304783.31
-16.681564 128.886 54.593475 144531.03
-16.697382 128.88228 54.577293 149417.28
-16.68981 128.88516 54.619801 135681.47
-16.26141 129.00169 55.563522 211996.64
-16.038115 129.0614 56.022961 211749.03
-15.81258 129.12234 56.507195 216355.81
-15.579265 129.20099 57.500946 225420.14
-15.320874 129.27109 58.064465 178728.11
-15.485323 129.22847 57.769035 169091.16
-15.471641 129.23254 57.810024 166413.02
-15.406363 129.25017 57.950031 136917.27
-15.516115 129.22166 57.750534 137514.61
-15.623614 129.19507 57.597649 173218.88
-15.837087 129.13956 57.208157 199294.62
-15.739897 129.16585 57.417564 205118.17
-14.97876 129.38864 59.59222 202324.92
-15.183593 128.19374 48.073158 195913.38
-15.018015 128.24159 48.51038 204816.91
-15.088303 128.23781 48.846661 253854.52
-15.379768 128.16208 48.346123 129581.05
-15.420593 128.15102 48.261765 130756
-15.60215 128.10344 47.937084 136981.97
-15.618443 128.09897 47.901325 134777.14
-15.614179 128.10048 47.921467 134262.03
-15.34289 128.17918 48.647106 268001.16
-15.151037 128.23471 49.156048 128172.57
-15.056344 128.26225 49.411835 151707.72
-15.015819 128.27435 49.530922 133097.75
-15.031576 128.27042 49.509018 138852.45
-14.881198 128.55536 57.533916 272004.34
-14.692701 128.60548 57.893703 264124.12
-14.612804 128.6268 58.048958 253395.81
-14.685585 128.60829 57.936684 237113.36
-14.804548 128.57852 57.768005 158687.03
-14.846853 128.56769 57.70052 163637.14
-14.825711 128.57346 57.745445 227963.22
-14.737663 128.5974 57.930252 221661.98
-14.750062 128.5952 57.941143 227250.92
-14.480144 128.67041 58.565369 175203.8
-14.509719 128.66272 58.514706 174402.72
-14.938271 128.55357 57.84795 286014
-15.117195 128.50658 57.524376 277948.53
-15.140669 128.5005 57.484745 154717.78
-15.169807 128.49284 57.431789 154082.58
-14.818287 128.58861 58.175556 194315.75
-14.797929 128.59448 58.229252 189075.44
-14.894807 128.56927 58.061554 238290.69
-14.865931 128.57761 58.137344 244358.02
-15.0207 128.53969 57.943909 161571.12
-15.104822 128.51825 57.812592 227416.77
-14.787343 128.60446 58.475895 135119.5
-14.114969 128.79066 59.994583 209743.61
-14.203992 128.7677 59.846706 209877.94
-14.026826 128.81586 60.21841 219884.97
-14.167294 128.78174 60.052006 146834.89
-14.294616 128.74884 59.839172 148388.44
-14.179171 128.77914 60.047009 148539.77
-14.329437 128.7401 59.78875 153539.47
-14.509367 128.69398 59.49979 161435.31
-14.525302 128.69012 59.481171 162029.23
-14.594146 128.67308 59.389637 172500.05
-14.382306 128.72987 59.808968 241302.44
-14.754684 128.63835 59.334583 183045.59
-14.68936 128.65791 59.528526 228495.98
-14.434764 128.72478 59.988575 228326.64
-14.451174 128.72063 59.963932 229566.08
-14.762472 128.63982 59.431168 175262.17
-14.023167 128.85396 61.398262 184640.45
-14.0655 128.84329 61.336029 178275.94
-14.153989 128.83124 61.529465 283262.69
-13.752421 128.97449 63.448471 309216.81
-13.7865 128.96616 63.406254 285639.75
-13.668479 128.9968 63.608395 282538.09
-13.623086 127.97738 53.463871 143506.03
-13.848101 127.92603 53.311775 134500.67
-13.831115 127.93085 53.35408 136691.77
-13.759301 127.95072 53.51619 139268.97
-12.481833 128.46738 61.72419 165557.45
-12.497209 128.46368 61.707859 166334
-12.569885 128.44594 61.62085 229977.14
-12.846973 128.37585 61.210587 179992.41
-12.652432 128.42783 61.588692 200153.66
-12.027533 128.61101 63.334595 189250.7
-11.951146 128.63142 63.483723 181875.23
-11.959176 128.63156 63.542347 176703.11
-12.018304 128.61665 63.456161 222663.83
-12.035956 128.61226 63.432743 225386.84
-14.49136 128.06651 62.250809 161544.66
-14.514904 128.06052 62.214794 160671.66
-14.352975 128.10335 62.515644 285994.59
-14.262103 128.12712 62.67635 275251.91
-14.200268 128.14372 62.799252 264037.38
-14.197443 128.14458 62.80801 271565.31
-13.637594 128.30075 64.113213 303441.12
-13.658849 128.29561 64.088951 310134.72
-13.710346 128.28262 64.014191 409554.53
-13.764493 128.26877 63.928772 407577.53
-13.804896 128.25865 63.872326 413253.16
-13.609449 128.3089 64.18856 419999.66
-13.474031 128.34433 64.42749 129705.38
-13.486691 128.34126 64.412872 130508.93
-13.360619 128.37381 64.621231 148630.88
-12.773046 128.6306 69.021782 174963.5
-12.807559 128.62245 68.989479 174159.33
-12.62431 128.67021 69.306992 252280.09
-12.731314 128.64391 69.173042 252003.16
-12.948514 128.59023 68.892189 163423.36
-12.028875 127.87778 57.300335 148904.73
-12.054226 127.87271 57.307201 142548.02
-12.651901 127.87653 61.23592 138503.48
-13.006436 127.79496 61.002529 216748.14
-12.941095 127.81326 61.145302 166460.23
-13.011836 127.79509 61.040974 172389.34
-13.101364 127.7718 60.899696 173343.61
-13.485292 127.6888 60.810009 146772.09
-13.618065 127.65447 60.607159 157485.86
-13.521765 127.68035 60.784367 157610.77
-13.39742 127.71352 61.005611 169309.67
-13.561105 127.67034 60.729141 169870.19
-17.08703 126.87491 58.892258 158497.28
-16.968081 126.90741 59.127529 255726.05
-16.880337 126.9317 59.310593 257620.45
-14.011039 127.82112 68.209999 243793.77
-13.928405 127.84335 68.362923 142489.47
-13.871879 127.85795 68.448524 142480.91
-13.66132 127.91286 68.784805 181554.91
-13.697372 127.91214 68.992897 273803.53
-14.062917 127.8248 68.653244 186687.47
-13.946983 127.85851 68.944923 365284.97
-13.985491 127.84921 68.905998 260835.25
-13.996712 127.84666 68.899467 261962.3
-14.416091 127.75503 68.772079 223933.58
-14.270203 127.79338 69.014534 204948.48
-14.215854 127.80798 69.114594 138122.48
-14.091454 127.84011 69.303558 138670.52
-14.190749 127.81532 69.178894 161925.81
-14.274042 127.79621 69.125694 159394.78
-14.643247 127.70303 68.630806 176530.09
-14.972941 127.62038 68.20591 179246.89
-14.915684 127.63596 68.317169 144149.38
-14.592409 127.72056 68.842651 138247.11
-14.376729 127.77666 69.182487 128252.74
-14.72243 127.68832 68.686203 133609.69
-12.573576 127.11081 55.068264 172711.36
-12.491803 127.13584 55.286449 140460.58
-12.672669 127.08743 54.998096 128196.26
-12.676985 127.08672 55.003834 127867.51
-12.640174 127.09731 55.083057 151568.81
-12.72809 127.07304 54.922455 154175.31
-12.78358 127.05806 54.830406 199574.22
-12.745331 127.06915 54.914955 203681.52
-12.820499 127.0484 54.777859 207977.22
-12.740446 127.07201 54.966122 230210.06
-12.750715 127.06948 54.9561 135612.81
-12.688049 127.09 55.160679 137153.8
-12.331517 127.20743 56.343456 190986.41
-12.548996 127.15021 56.024517 138210.91
-12.517652 127.16028 56.121601 131494.16
-13.058787 127.01015 55.111542 157713.98
-11.214457 127.56363 59.722076 136005.19
-13.089086 127.30322 63.479946 143923.69
-13.037831 127.31765 63.581661 130335.78
-13.038054 127.31769 63.58416 132722.45
-14.030679 127.29284 68.73307 329082.81
-14.051153 127.28766 68.708839 333269.25
-13.311317 127.52891 71.095634 315906.59
-13.296344 127.53349 71.135345 426876.06
-13.345691 127.52122 71.083336 426142.25
-13.25553 127.54502 71.217537 169800.66
-13.290671 127.53622 71.17836 171400.3
-10.580987 127.17559 55.500565 262299.78
-10.654544 127.15507 55.369095 257235.3
-10.734018 127.13339 55.239819 291743.81
-11.472145 127.06863 57.555382 132438.84
-11.538255 127.05033 57.441261 161669.17
-11.509402 127.05896 57.507568 159711.62
-11.53092 127.05299 57.470203 166077.28
-9.9618454 127.03806 58.9347 276022.16
-9.9651489 127.03724 58.931217 272954.91
-10.02017 127.02278 58.854916 271569.75
-10.487856 126.96206 59.766697 189117.75
-10.320292 127.0094 60.082062 264286.84
-10.190926 127.05102 60.45277 182163.59
-10.048029 127.09123 60.717705 145395.66
-9.7017355 127.20802 61.845078 185509.55
-9.7509689 127.19844 61.861092 135948.69
-9.7264996 127.20535 61.90699 134673.73
-9.7725458 127.19355 61.850765 281369.19
-11.036708 126.85851 60.026257 185758.12
-11.036933 126.85927 60.046471 197185.77
-10.856395 126.91846 60.591637 131081.02
-10.491981 127.02103 61.267963 163828.55
-10.342498 127.06405 61.569004 139822.86
-10.274737 127.08332 61.699665 141914.16
-10.134441 127.12234 61.94841 166175.73
-10.166957 127.11926 62.040176 154169.28
-10.313374 127.08055 61.831486 160686.3
-10.378649 127.06442 61.766556 223284.91
-10.174918 127.12115 62.129116 179240.56
-11.113225 126.10389 50.86623 129382.84
-11.041632 126.12539 51.038719 183365.11
-11.11811 126.10408 50.896114 191252.03
-11.131942 126.10082 50.885201 231052.02
-11.139119 126.09888 50.873425 232490.81
-11.165307 126.09148 50.821945 235587.47
-11.426289 126.01626 50.272564 157612.47
-11.467243 126.00438 50.184502 159575.23
-11.489074 125.99874 50.154957 171656.75
-11.59226 125.96983 49.958504 156825.62
-11.590811 125.97258 50.020191 166521.45
-9.6963625 126.80082 61.094185 132649.06
-9.8313293 126.77087 61.034744 177174.42
-9.6857233 126.81064 61.286045 181995.39
-9.493329 126.86454 61.652126 145935.97
-9.4480925 126.89166 62.101017 310506.03
-9.5335712 126.86928 61.977592 316029.47
-9.3996029 126.90537 62.196465 316534.22
-9.3401623 126.92145 62.294876 209363.91
-9.2628422 126.94267 62.431114 212311.06
-9.2368021 126.95049 62.49382 131215.75
-9.2313948 126.95217 62.508213 132067.8
-9.3290472 126.92628 62.359356 210778.08
-9.5129261 126.87733 62.074024 207404.23
-9.518755 126.87644 62.081379 204784.94
-9.4506559 126.90089 62.345901 163459.78
-10.614853 126.64604 61.921459 195983.64
-10.832405 126.58844 61.591583 218929.34
-10.890924 126.57333 61.512566 133216.33
-10.750264 126.61466 61.828495 148358.56
-10.958342 126.58751 62.214592 216969.95
-10.896377 126.6044 62.320702 220370.23
-10.722627 126.65177 62.618534 297405.88
-10.657403 126.66953 62.729584 293163.72
-10.712567 126.65491 62.645809 292320.78
-10.669349 126.66716 62.731499 316937.28
-10.633882 126.67768 62.813576 294618
-10.662853 126.67041 62.779667 295532.31
-10.436585 126.73137 63.149021 140588.84
-10.416185 126.73752 63.198826 142576.77
-11.761977 126.43298 62.458607 200473.11
-11.610306 126.47511 62.738159 129318.26
-11.535937 126.49519 62.860638 129192.25
-11.578788 126.48483 62.82032 178022.28
-10.709728 126.76344 65.356102 146905.27
-10.765646 125.75475 51.214214 215779.75
-10.787811 125.74877 51.176506 192762.89
-10.849408 125.73146 51.054787 195033.08
-10.976334 125.70302 50.985306 211754.98
-11.010138 125.69492 50.953472 169197.62
-11.006395 125.69791 51.009727 174938.66
-8.6420527 126.53894 60.120728 128871.61
-8.4751978 126.58781 60.500332 363103.81
-11.011524 126.10052 61.14888 208726.64
-11.106351 126.07523 60.995457 208003.53
-11.248857 126.03766 60.776031 182238.27
-10.889939 126.2086 63.246014 262725.97
-11.04371 126.16872 63.025772 240769.86
-10.862041 126.21709 63.317646 236412.64
-10.89418 126.20862 63.268097 234474.08
-11.118463 126.14922 62.915936 231811.69
-11.026816 126.18536 63.357693 130593.55
-10.751242 126.25914 63.810829 133773.03
-10.729384 126.26508 63.848713 151202.33
-10.82851 126.23959 63.71241 158062.94
-9.8952961 126.49407 65.36235 141099.75
-9.8684063 126.50188 65.421967 251148.34
-9.8454676 126.508 65.459099 249478.34
-9.8663092 126.50264 65.430283 247614.02
-9.875576 126.50027 65.417793 251600.34
-9.9977331 126.46886 65.249474 374451.38
-9.9736195 126.47582 65.301926 372710.56
-10.039887 126.45923 65.221909 214195.78
-10.217579 126.41953 65.127808 138465.16
-10.322374 126.39358 65.008331 211876.84
-10.550106 126.33427 64.675827 203506.91
-10.706879 126.29362 64.4515 207349.78
-10.876494 126.24914 64.195984 183357.72
-10.926164 126.2361 64.120888 180857.84
-10.782436 126.27447 64.354309 178233.12
-10.509496 126.34799 64.814171 156772.34
-10.592444 126.32761 64.723595 147549.94
-12.781241 126.21288 72.9646 283835.97
-12.66663 126.24263 73.129539 295511
-12.729794 126.22711 73.060654 344321.66
-12.886435 126.18742 72.859573 341232.56
-12.741717 126.2246 73.058266 335342.78
-12.747968 126.22313 73.053101 189954.58
-12.580606 126.26606 73.280861 198762.34
-12.639471 126.25134 73.210281 198176.56
-12.752861 126.22276 73.068459 143287.48
-12.995462 126.16135 72.758926 140681.67
-12.932961 126.17744 72.845551 142715.44
-9.7252111 125.69326 60.764721 152439.64
-9.7111635 125.69707 60.790977 152915.41
-9.7298708 125.69226 60.763226 155244.56
-9.7930603 125.67569 60.660126 156318.81
-9.7945347 125.67616 60.680824 150502.92
-7.9159422 124.74641 58.157478 356535.69
-7.8047271 124.77548 58.352623 357458.94
-7.82271 124.77087 58.323822 151635.09
-7.8498387 124.76391 58.279884 153431.58
-7.8443484 124.76543 58.292004 153017.91
-7.724844 124.79663 58.500568 151989.42
-7.5633726 124.83853 58.774895 149091.53
-7.5817914 124.83382 58.745476 149228.3
-7.5793476 124.83447 58.750244 150274.05
-8.1950483 124.81149 61.766033 137559.14
-8.199338 124.81083 61.772301 132030.48
-8.0592222 124.84725 62.012077 204791.09
-8.0782976 124.84458 62.047462 132852.39
-8.0942926 124.84064 62.026608 133798.36
-7.9298491 124.88298 62.295761 131662
-7.8470201 123.43973 55.579254 177262.86
-7.7800579 123.46398 55.917641 242533.67
-7.8321095 123.45143 55.85397 271657.56
-7.8381953 123.4501 55.850834 270727.22
-7.8459268 123.44823 55.841278 269138.88
-7.8310642 123.4523 55.874729 268545.91
